# .PCD v0.7 - Point Cloud Data file format
VERSION 0.7
FIELDS x y z rgb
SIZE 4 4 4 4
TYPE F F F U
COUNT 1 1 1 1
WIDTH 1176
HEIGHT 1
VIEWPOINT 0 0 0 1 0 0 0
POINTS 1176
DATA ascii
0.32679901 0.147009 -0.73654401 8581034
0.327535 0.147026 -0.736628 8581034
0.32827601 0.147045 -0.73672402 8581034
0.329023 0.147067 -0.73683298 8712619
0.329759 0.147083 -0.73691499 8778415
0.33049601 0.1471 -0.73699999 8778415
0.33123499 0.147118 -0.73708898 8909230
0.33208299 0.147184 -0.73742002 9039794
0.33298001 0.14727201 -0.737858 9039537
0.33392501 0.14737999 -0.738401 9039281
0.334407 0.147284 -0.73791897 8973235
0.335031 0.147251 -0.73775297 8972721
0.33579901 0.14728101 -0.737903 8972207
0.336557 0.147306 -0.738029 9102001
0.33685499 0.14713 -0.73715001 8770473
0.336725 0.146466 -0.73382097 6722423
-0.50455999 0.153584 -0.77315903 6455910
-0.49977601 0.15257201 -0.76806098 11070647
-0.499679 0.15276501 -0.76903301 10550722
-0.50046402 0.153228 -0.77136701 10353597
-0.49966499 0.153208 -0.77126199 10026180
-0.49889901 0.15319701 -0.77120799 9960383
-0.49816599 0.15319601 -0.77120602 9829312
-0.49751601 0.153221 -0.77133203 9895101
-0.496867 0.153247 -0.77146101 9698498
-0.49621901 0.153273 -0.77158999 9764287
-0.49556899 0.15329801 -0.77171803 9567683
-0.49492601 0.153326 -0.77185702 9501887
-0.49429101 0.153356 -0.772008 9501887
-0.493626 0.153377 -0.77211303 9567426
-0.49295101 0.153394 -0.77220303 9436862
-0.492266 0.153409 -0.77227598 9305791
-0.49159101 0.153427 -0.772367 9371073
-0.490951 0.153456 -0.77251202 9502401
-0.49034399 0.153495 -0.77271098 9502144
-0.48967299 0.153515 -0.77280802 9436605
-0.48899701 0.153533 -0.77289897 9436605
-0.488318 0.153549 -0.77298403 9436605
-0.48765001 0.15357 -0.77308601 9371066
-0.487039 0.15360799 -0.77328002 9371066
-0.486485 0.15366501 -0.77356499 9305277
-0.48581401 0.153685 -0.77366501 9371066
-0.48519999 0.153723 -0.77385598 9305277
-0.484644 0.153779 -0.77414 9304763
-0.48369101 0.15370999 -0.77379 9304506
-0.482822 0.153667 -0.77357399 9370295
-0.48203599 0.15365 -0.773489 8974255
-0.48058501 0.153421 -0.77233601 6733715
-0.479132 0.153191 -0.77117699 3573343
-0.099365003 0.150668 -0.75848001 4877400
-0.098309003 0.15015399 -0.75589198 4814941
-0.097289003 0.14968801 -0.753546 5742453
-0.096304998 0.14927 -0.75144202 7853466
-0.095698997 0.14943799 -0.75228399 8778158
-0.095023997 0.149498 -0.75258899 8255151
-0.094282001 0.149452 -0.75235802 7927469
-0.093667999 0.14961199 -0.75316101 7796655
-0.093015 0.149709 -0.75365299 7731372
-0.092321999 0.149745 -0.753833 7665840
-0.091614999 0.149758 -0.75389701 7600044
-0.090910003 0.149774 -0.75397801 7665833
-0.090205997 0.149794 -0.75407702 7600558
-0.089501001 0.14981 -0.75415897 7535019
-0.088797003 0.149829 -0.754255 7666090
-0.088095002 0.14985099 -0.75436503 7666090
-0.087393999 0.149877 -0.75449699 7600815
-0.086691998 0.1499 -0.75461102 7469743
-0.085988 0.149919 -0.75470799 7535276
-0.085281 0.14993501 -0.75478601 7600815
-0.084570996 0.149946 -0.75484502 7666090
-0.083860002 0.14995401 -0.75488502 7731629
-0.083159 0.14998201 -0.755023 7797425
-0.082457997 0.15000799 -0.75515401 7797425
-0.081754997 0.150032 -0.75527698 7863214
-0.081050001 0.15005399 -0.75538599 7863214
-0.080342002 0.150069 -0.75546002 7797939
-0.079628997 0.150076 -0.75549799 7797939
-0.078895003 0.150043 -0.75532901 7797425
-0.078195997 0.150076 -0.75549698 7797425
-0.077532001 0.150176 -0.75600201 7862957
-0.076908998 0.15036 -0.75692701 7928497
-0.076205999 0.150389 -0.75707501 7994029
-0.075424999 0.15026399 -0.756446 7862187
-0.074708 0.15026399 -0.756446 8187820
-0.071177997 0.148885 -0.74949998 4612688
0.31184101 0.146503 -0.73751199 4941642
0.31255701 0.146511 -0.73755097 5467986
0.31223699 0.146034 -0.73514998 5415025
0.31228 0.14572901 -0.73361301 7915416
0.31268901 0.145595 -0.73294002 8381605
0.31363401 0.145711 -0.73352599 8645039
0.31454501 0.14581101 -0.734029 8645546
0.315422 0.145895 -0.73444903 8711342
0.31622899 0.145946 -0.73470497 8581034
0.31700099 0.14598 -0.73487997 8581034
0.317738 0.145999 -0.73497301 8581548
0.31848401 0.14602099 -0.73508602 8515752
0.319231 0.146044 -0.735201 8515759
0.31997901 0.14606699 -0.73531801 8449963
0.32073 0.146092 -0.73544198 8515759
0.321486 0.146118 -0.73557502 8581548
0.32224599 0.146147 -0.73571801 8581548
0.32299101 0.14616799 -0.73582399 8581548
0.32373801 0.14619 -0.735937 8646830
0.324489 0.14621399 -0.73605698 8646830
0.32524899 0.14624199 -0.73619801 8646830
0.32600701 0.14626899 -0.73633301 8646830
0.326763 0.146295 -0.73646301 8646830
0.32750401 0.146314 -0.73655802 8646830
0.328246 0.14633299 -0.73665601 8646830
0.32899001 0.146354 -0.73675799 8778415
0.329721 0.146368 -0.73682898 8778415
0.330452 0.146382 -0.736902 8778415
0.33118501 0.14639699 -0.73697698 8909230
0.33202201 0.146458 -0.737284 9039794
0.332872 0.146524 -0.73761803 9039537
0.333736 0.146597 -0.73798198 9039281
0.334272 0.146525 -0.73762202 8973492
0.33494499 0.146513 -0.73756301 8907182
0.33575499 0.146561 -0.73780501 8906418
0.33657399 0.146614 -0.73806798 9036719
0.336869 0.146438 -0.73718101 8967847
0.336705 0.145761 -0.73377597 6787960
-0.50566399 0.152963 -0.773727 5860185
-0.50277698 0.152311 -0.77042699 6258531
-0.50154901 0.15216 -0.76966298 8173448
-0.50006598 0.151931 -0.768507 10939318
-0.49966699 0.152032 -0.76901299 10419650
-0.50026703 0.152437 -0.77106303 10222783
-0.49920699 0.152336 -0.77055597 9960383
-0.49849999 0.152344 -0.77059197 9960383
-0.49814299 0.152458 -0.77117097 9829826
-0.49747601 0.15247799 -0.77127099 9829826
-0.49682599 0.152503 -0.77139699 9764287
-0.49619299 0.15253299 -0.77155 9764287
-0.49552 0.152551 -0.77164203 9567683
-0.49487099 0.152577 -0.77177101 9567683
-0.49424499 0.15260901 -0.771936 9632702
-0.49358901 0.152633 -0.77205497 9698498
-0.49291301 0.15265 -0.77214301 9436862
-0.492217 0.15266199 -0.77219999 9371330
-0.49155 0.15268201 -0.77230197 9436862
-0.49090201 0.15270799 -0.77243501 9436605
-0.490273 0.15274 -0.77259803 9502144
-0.48961499 0.15276401 -0.772717 9567683
-0.48893601 0.15278 -0.77280098 9567933
-0.488235 0.15279 -0.77285099 9436605
-0.48757601 0.152814 -0.77297002 9371066
-0.48696801 0.152853 -0.77316803 9370809
-0.48640999 0.152908 -0.77344602 9305277
-0.48552999 0.152862 -0.77321303 9305277
-0.484918 0.1529 -0.77340603 9305020
-0.48457199 0.15302201 -0.77402502 9304763
-0.483648 0.152962 -0.77372199 9238967
-0.482759 0.152913 -0.77347302 9238967
-0.48190501 0.15287501 -0.77327901 8711599
-0.48034799 0.152613 -0.77195603 6930582
-0.47907999 0.15244301 -0.77109301 3573086
-0.099368997 0.149956 -0.75851601 5270873
-0.098318003 0.149451 -0.755961 5076828
-0.097269997 0.148945 -0.75340199 5675376
-0.096226998 0.14843801 -0.75083798 7721117
-0.095670998 0.14868 -0.75206101 8843441
-0.094994999 0.148738 -0.75235403 8320433
-0.094200999 0.14861199 -0.751715 7992751
-0.093627997 0.148834 -0.75283903 7796655
-0.092992999 0.14896099 -0.75348097 7731372
-0.092298001 0.148992 -0.75364 7665840
-0.091586001 0.148996 -0.75365901 7666090
-0.090883002 0.14901499 -0.75375402 7600558
-0.090187997 0.149048 -0.75392401 7535019
-0.089484997 0.149069 -0.75402701 7535276
-0.088780999 0.149086 -0.75411397 7600815
-0.088073999 0.14910001 -0.75418597 7666347
-0.087370001 0.149119 -0.754282 7535276
-0.086668 0.149143 -0.75440198 7469743
-0.085969001 0.14917099 -0.75454497 7469743
-0.085265003 0.14919101 -0.75464398 7535532
-0.084556997 0.149205 -0.75471598 7600815
-0.083846003 0.149214 -0.75476098 7666347
-0.083136 0.149224 -0.75481302 7666347
-0.082431003 0.149244 -0.75491399 7732143
-0.081731997 0.14927401 -0.75506598 7797939
-0.081024997 0.14929099 -0.75514901 7797939
-0.080316 0.149305 -0.75522202 7798196
-0.079607002 0.149317 -0.75528401 7732400
-0.078901999 0.14934 -0.75539899 7732400
-0.078189 0.14934599 -0.755427 7732400
-0.077467002 0.149334 -0.75537002 7863214
-0.076889999 0.149606 -0.75674301 7863214
-0.076200001 0.14966001 -0.757016 7928497
-0.075398996 0.149496 -0.75618702 7796911
-0.074681997 0.149496 -0.75618702 8188584
-0.071246997 0.14831699 -0.75022501 4612943
0.31192601 0.145844 -0.73771298 4941385
0.31256199 0.145814 -0.73756099 5401936
0.31228501 0.14535899 -0.73526299 5348720
0.312316 0.14505 -0.73369801 7849113
0.31265801 0.144886 -0.73286903 8446887
0.31358099 0.144991 -0.733401 8710571
0.31448501 0.145088 -0.73388898 8645546
0.31537101 0.145175 -0.73433101 8711342
0.31619 0.14523099 -0.73461503 8581034
0.316971 0.14527 -0.73480999 8581034
0.31771401 0.145291 -0.73491901 8581548
0.318463 0.14531501 -0.735039 8515752
0.319208 0.145336 -0.735147 8515752
0.319947 0.145356 -0.73524499 8449963
0.32068801 0.145375 -0.73534399 8515759
0.32144299 0.145401 -0.73547602 8515759
0.32221201 0.14543401 -0.735641 8647344
0.32295799 0.145455 -0.73574901 8647344
0.32370999 0.14548001 -0.735874 8647087
0.324471 0.14550801 -0.73601598 8646830
0.32521001 0.14552701 -0.73610997 8581034
0.32596001 0.14555 -0.73622602 8646830
0.32672 0.145577 -0.73636502 8712619
0.32746401 0.145597 -0.73646802 8712619
0.32820401 0.14561599 -0.736561 8712619
0.32893899 0.145632 -0.73664403 8778415
0.329671 0.145647 -0.73671901 8778415
0.33041301 0.145666 -0.73681599 8778415
0.33116499 0.14568999 -0.73693401 8909230
0.33193901 0.145722 -0.73709899 8974769
0.33269501 0.14574701 -0.73722601 9040051
0.33343399 0.14576501 -0.73731399 9039537
0.33413401 0.14576501 -0.73731601 8907695
0.334885 0.145788 -0.73743099 8907182
0.33568799 0.145833 -0.73765898 8972207
0.336548 0.14590199 -0.73800999 9102001
0.33692399 0.145762 -0.73730099 8967847
0.33681399 0.145413 -0.735533 8566419
0.33674899 0.14508399 -0.733872 6919287
-0.503245 0.151722 -0.77114499 6389861
-0.50152302 0.15142199 -0.76962298 8238980
-0.50004202 0.151195 -0.76846898 11004858
-0.49948001 0.151246 -0.76872599 10485182
-0.49983299 0.151574 -0.77039403 10288065
-0.499082 0.151568 -0.77036297 9960391
-0.49848899 0.151609 -0.77057499 10026180
-0.49805099 0.15169901 -0.771029 9895622
-0.497401 0.151723 -0.77115399 9829826
-0.49676099 0.151751 -0.77129602 9764287
-0.49613199 0.151783 -0.771456 9764287
-0.49547601 0.151806 -0.77157301 9567683
-0.49483001 0.151832 -0.77170599 9633472
-0.494194 0.151861 -0.77185601 9698498
-0.493525 0.15188099 -0.77195501 9698498
-0.49285299 0.15189999 -0.77204901 9502401
-0.49217799 0.151917 -0.77214003 9436869
-0.49150199 0.151934 -0.77222699 9502401
-0.490848 0.151959 -0.77235103 9567940
-0.490219 0.15199099 -0.77251297 9633472
-0.48956001 0.152014 -0.77262902 9567683
-0.48888499 0.152032 -0.77272099 9567940
-0.48819399 0.152045 -0.77278697 9502401
-0.48752901 0.15206601 -0.77289402 9436605
-0.48693001 0.152108 -0.77310801 9370816
-0.48639801 0.152171 -0.77342701 9305020
-0.48560399 0.152152 -0.77333099 9370816
-0.48494801 0.15217599 -0.77345401 9370559
-0.48442701 0.152243 -0.773794 9304506
-0.48355699 0.1522 -0.77357501 9304506
-0.482692 0.15215801 -0.77336502 9304506
-0.48183301 0.152119 -0.77316397 8908723
-0.48026499 0.15185501 -0.77182299 6996373
-0.47881699 0.151628 -0.77066898 3638877
-0.099339001 0.14919201 -0.75828701 5270873
-0.098323002 0.14874201 -0.75599998 5011035
-0.097295001 0.148269 -0.75359499 5477741
-0.096257001 0.147772 -0.751073 7655064
-0.095697001 0.14800701 -0.75226599 8908980
-0.094999999 0.14803199 -0.75239301 8320690
-0.094168998 0.147848 -0.75145501 7927469
-0.093610004 0.148092 -0.75269598 7731115
-0.092981003 0.14822701 -0.75338203 7731115
-0.092283003 0.148252 -0.75351202 7731115
-0.091572002 0.148259 -0.753546 7665840
-0.090865999 0.14827199 -0.75361401 7535019
-0.090163 0.14829201 -0.75371599 7535019
-0.089469001 0.14832599 -0.75388598 7535019
-0.088767998 0.148349 -0.75400501 7535019
-0.088059999 0.148362 -0.75406998 7600815
-0.087352999 0.148376 -0.75414002 7535276
-0.086649001 0.148395 -0.75423902 7470000
-0.085949004 0.14842001 -0.75436598 7470000
-0.085247003 0.148445 -0.75449198 7535532
-0.084540002 0.14846 -0.75456703 7601072
-0.083826996 0.14846499 -0.75459099 7666604
-0.083122 0.14848199 -0.75467998 7666604
-0.082415998 0.14850099 -0.75477397 7732400
-0.081711002 0.14851999 -0.75487399 7732400
-0.081010997 0.14854901 -0.75502199 7666604
-0.080306001 0.148569 -0.75512302 7666861
-0.079595998 0.14858 -0.75518 7667118
-0.078896001 0.14861199 -0.75534099 7732400
-0.078201003 0.148651 -0.755539 7732400
-0.077508003 0.148697 -0.75577402 7732143
-0.076867998 0.148846 -0.75653201 7797425
-0.076167002 0.14887799 -0.75669003 7797425
-0.075405002 0.148791 -0.756248 7731629
-0.074532002 0.14848 -0.75467002 8188841
0.312098 0.145224 -0.73811901 5072457
0.31250301 0.145087 -0.737423 5335885
0.31228501 0.14466199 -0.735264 4954215
0.31234899 0.14436901 -0.73377597 7717521
0.31269699 0.144209 -0.73295999 8512933
0.313575 0.144293 -0.73338699 8776367
0.31446099 0.14438 -0.73383099 8711085
0.315355 0.144471 -0.734294 8711342
0.31616399 0.14452299 -0.73455501 8646316
0.31693599 0.144557 -0.73472899 8646573
0.317671 0.144574 -0.73481899 8515752
0.31843099 0.144603 -0.73496401 8515759
0.319181 0.144627 -0.73508698 8515502
0.319922 0.144647 -0.73518598 8515502
0.32065901 0.144665 -0.73527801 8581291
0.321408 0.144688 -0.73539698 8581291
0.32216901 0.14471699 -0.735542 8647087
0.32292101 0.144741 -0.73566598 8712619
0.32367599 0.144767 -0.73579597 8646830
0.32443401 0.144793 -0.73593199 8581034
0.32518101 0.144816 -0.736045 8581034
0.32592699 0.14483701 -0.73615199 8646830
0.32666999 0.144857 -0.73625302 8778415
0.32742301 0.144881 -0.736377 8778415
0.32816699 0.14490101 -0.73647797 8844212
0.32890099 0.144917 -0.73655802 8844212
0.32962701 0.14492901 -0.73662001 8844212
0.330358 0.144943 -0.73669201 8844204
0.331094 0.144959 -0.73677498 8909487
0.33182499 0.14497399 -0.73684698 9040308
0.33257601 0.144996 -0.73696202 9105583
0.33334601 0.145027 -0.73711997 9105334
0.33409801 0.14505 -0.73723602 8973492
0.334903 0.145096 -0.73746902 8907182
0.33576101 0.145165 -0.73781902 8972207
0.33651599 0.145188 -0.737939 9167790
0.33687201 0.14504001 -0.73718703 9230510
0.33682701 0.144721 -0.73556298 8763543
0.33673999 0.144385 -0.733854 6984823
0.337044 0.144217 -0.73299903 6189406
-0.50352699 0.15107501 -0.77157599 6389604
-0.49998999 0.150451 -0.76838899 11004601
-0.49930799 0.150465 -0.768462 10550979
-0.49936 0.1507 -0.76966399 10353854
-0.49889699 0.15078101 -0.77007598 10026180
-0.49843401 0.15086199 -0.77048999 9960640
-0.49797201 0.15094399 -0.77090698 9895622
-0.49732301 0.150968 -0.77103299 9829826
-0.49668899 0.150998 -0.77118403 9764287
-0.49606901 0.151032 -0.771357 9764287
-0.49542499 0.151059 -0.77149302 9633479
-0.49478099 0.151085 -0.771631 9633472
-0.49413899 0.151113 -0.77177 9567683
-0.493462 0.15112901 -0.77185601 9567683
-0.492796 0.15115 -0.77196002 9371330
-0.49214199 0.15117399 -0.77208298 9371330
-0.49145901 0.151189 -0.77215999 9502401
-0.490803 0.15121301 -0.77227998 9567940
-0.490174 0.151244 -0.772443 9567940
-0.48950499 0.151264 -0.77254301 9567683
-0.48883301 0.151283 -0.77263802 9501887
-0.488157 0.1513 -0.77272803 9501887
-0.48748299 0.151319 -0.77282101 9436348
-0.48688501 0.151361 -0.773036 9370816
-0.48636299 0.151426 -0.77337199 9370559
-0.48569 0.151445 -0.773467 9370816
-0.485015 0.151463 -0.773561 9305020
-0.48434001 0.151482 -0.773655 9370302
-0.483446 0.15143199 -0.773399 9304506
-0.48260501 0.151398 -0.77322602 9304506
-0.48181599 0.15138 -0.77313602 8777138
-0.48026001 0.15112101 -0.771815 7062167
-0.47865 0.15084501 -0.770401 3639134
-0.47673801 0.150702 -0.769674 5466712
-0.099319004 0.148443 -0.75813401 5270874
-0.098327003 0.148031 -0.75603002 4879452
-0.097309999 0.147576 -0.75370502 5411947
-0.096268997 0.14707699 -0.75115901 7589011
-0.095719002 0.147328 -0.752442 8777645
-0.095008999 0.14733399 -0.75247103 8189876
-0.094141997 0.147094 -0.75124699 7927726
-0.093589999 0.147346 -0.75253397 7796911
-0.092964001 0.147485 -0.753245 7731372
-0.092266001 0.147512 -0.75337899 7731372
-0.091559 0.147524 -0.75344098 7600558
-0.090850003 0.147533 -0.753488 7535019
-0.09014 0.14754 -0.75352103 7535276
-0.089451998 0.14758299 -0.75374299 7535276
-0.088753998 0.14761101 -0.75388801 7535276
-0.088046998 0.147625 -0.75395602 7600815
-0.087338001 0.147635 -0.754008 7535532
-0.086631998 0.14765 -0.754085 7470250
-0.085928001 0.14767 -0.75418699 7535789
-0.085229002 0.147698 -0.75433099 7535532
-0.084523 0.147714 -0.75441402 7535276
-0.083810002 0.147719 -0.75443602 7600815
-0.083108999 0.147743 -0.75456202 7666604
-0.082404003 0.147762 -0.754659 7666604
-0.081694998 0.14777499 -0.75472599 7666604
-0.081 0.14781301 -0.754915 7601072
-0.080297001 0.147837 -0.75503999 7535276
-0.079586998 0.14784899 -0.75510103 7601329
-0.078891002 0.14788599 -0.75529099 7667118
-0.078213997 0.14795899 -0.755665 7666861
-0.077554002 0.14806899 -0.75622302 7666347
-0.076867998 0.148128 -0.75652701 7797425
-0.076158002 0.148142 -0.75659901 7797425
-0.075424001 0.148111 -0.75643998 7731629
-0.074502997 0.147706 -0.75437301 8188841
0.312222 0.144581 -0.73841298 5072713
0.31245199 0.144364 -0.73730201 5204556
0.31227601 0.14396 -0.735241 4821858
0.31235099 0.143674 -0.73378098 7782539
0.31268001 0.14350601 -0.732921 8512933
0.31349999 0.143563 -0.73321199 8907952
0.314372 0.14364401 -0.73362499 8842413
0.31529799 0.143749 -0.73416102 8842670
0.316122 0.14380699 -0.73445803 8646316
0.316899 0.14384399 -0.73464501 8646316
0.317628 0.143858 -0.73471898 8515245
0.31839699 0.14389101 -0.73488498 8515502
0.319152 0.14391699 -0.73501903 8515245
0.319893 0.14393701 -0.73512101 8581034
0.32063499 0.143957 -0.735223 8581034
0.32137999 0.143978 -0.73533303 8581034
0.32212901 0.14400101 -0.73545098 8712619
0.32288599 0.14402799 -0.73558599 8712619
0.323641 0.144053 -0.735717 8646830
0.324395 0.144078 -0.73584402 8581034
0.32515001 0.144104 -0.73597401 8646830
0.32589501 0.144124 -0.73607898 8712619
0.32662699 0.14414001 -0.736157 8778415
0.32738301 0.14416499 -0.736287 8844212
0.32812801 0.144186 -0.73639202 8844212
0.32886201 0.144201 -0.73647201 8844212
0.329584 0.14421199 -0.73652399 8844212
0.33029899 0.144219 -0.736561 8844212
0.33100799 0.144223 -0.73658401 8975283
0.331716 0.144228 -0.736606 9106097
0.33247301 0.144253 -0.73673397 9106097
0.33327699 0.144299 -0.73696899 8974512
0.33409899 0.14435101 -0.73723799 8908209
0.33494499 0.14441501 -0.73756301 8907695
0.33581701 0.14448901 -0.73794198 8972464
0.336496 0.14448 -0.73789698 9233586
0.33683699 0.144326 -0.73711002 9362095
0.33683601 0.14402699 -0.73558199 8960661
0.33673099 0.143685 -0.73383403 7247992
0.33718801 0.143287 -0.73180401 5597013
-0.50357801 0.15035801 -0.77165401 6323553
-0.50110102 0.149836 -0.76897597 8173191
-0.49997899 0.149719 -0.76837301 11004344
-0.499246 0.149717 -0.76836598 10485182
-0.49889901 0.149832 -0.76895398 10288065
-0.498431 0.149911 -0.76935798 10025923
-0.498115 0.15003499 -0.76999801 10026180
-0.497951 0.150206 -0.77087402 9895622
-0.497255 0.150217 -0.77092701 9829826
-0.496609 0.150243 -0.771061 9764287
-0.49601501 0.15028401 -0.77127302 9830083
-0.49535799 0.150307 -0.77139002 9699012
-0.49471301 0.150333 -0.77152401 9567683
-0.49407899 0.150363 -0.77167702 9698498
-0.493411 0.150382 -0.77177697 9698498
-0.49275401 0.150405 -0.77189398 9502144
-0.492107 0.15043101 -0.77202702 9502401
-0.49143401 0.15044899 -0.77212 9502401
-0.49078 0.150473 -0.77224302 9502401
-0.49014401 0.15050299 -0.77239501 9567683
-0.48945099 0.150515 -0.77245802 9567426
-0.488772 0.15053099 -0.77254301 9501630
-0.488107 0.150552 -0.77265 9436098
-0.48742899 0.15056901 -0.772735 9436091
-0.48680899 0.15060399 -0.77291602 9436091
-0.48625001 0.150658 -0.77319098 9501887
-0.48564601 0.15069801 -0.77339703 9501887
-0.48503399 0.150736 -0.77359098 9436091
-0.484413 0.15077101 -0.77377099 9370302
-0.483316 0.150658 -0.77319098 9370295
-0.48247799 0.15062501 -0.773022 9370552
-0.48189601 0.150672 -0.773265 8908980
-0.48036599 0.15042301 -0.77198499 7193493
-0.478791 0.150158 -0.77062798 3704926
-0.099336997 0.14774901 -0.75826597 5139031
-0.098329999 0.147319 -0.756055 4879192
-0.097281002 0.146818 -0.75348401 5477482
-0.096190996 0.146247 -0.75055301 7588754
-0.095710002 0.14659999 -0.75236899 8843184
-0.095014997 0.14662901 -0.75251597 8255408
-0.094111003 0.146332 -0.75099301 7993265
-0.093555003 0.146578 -0.75225401 7862700
-0.092932999 0.146722 -0.75299197 7731629
-0.092244998 0.146764 -0.75320601 7600815
-0.091541998 0.146782 -0.753299 7600815
-0.090834998 0.14679299 -0.75335699 7600815
-0.090122998 0.146798 -0.75338101 7601072
-0.089435004 0.14684001 -0.75359899 7601072
-0.088737004 0.14686801 -0.75374401 7601072
-0.088031001 0.146882 -0.75381601 7600815
-0.087321997 0.14689299 -0.75386798 7601072
-0.086613998 0.146906 -0.75393498 7470250
-0.085909002 0.14692099 -0.75401503 7535532
-0.085208997 0.14694799 -0.75415403 7535532
-0.084505998 0.14696901 -0.75426 7535276
-0.083798997 0.146983 -0.75433397 7600815
-0.083095998 0.14700501 -0.75444698 7666604
-0.082392998 0.147027 -0.75455999 7666604
-0.081689 0.14704899 -0.75467098 7666604
-0.080987997 0.147076 -0.75481099 7666604
-0.080284998 0.1471 -0.75493097 7601072
-0.079580002 0.14712 -0.75503302 7666604
-0.078892998 0.147174 -0.75531101 7732400
-0.078221999 0.147258 -0.75574303 7666861
-0.077564999 0.14737201 -0.75632799 7731886
-0.076916002 0.147503 -0.75700098 7797425
-0.076214001 0.147533 -0.75715601 7862957
-0.075459003 0.147462 -0.75679201 7731372
-0.074538 0.14705899 -0.75472403 8123566
-0.073720999 0.14685801 -0.75369102 7529631
0.31220201 0.14387199 -0.73836601 5138250
0.312442 0.14365999 -0.73728001 5270349
0.312264 0.14325801 -0.73521399 4821345
0.31228599 0.142948 -0.73362702 7847821
0.312509 0.14273299 -0.73251802 8512683
0.31324899 0.142754 -0.73262602 8907695
0.31412399 0.14283501 -0.733046 8907952
0.31513399 0.142978 -0.733778 8842413
0.31604001 0.14307299 -0.734267 8646316
0.316861 0.14312901 -0.73455501 8646316
0.31759501 0.14314599 -0.73464203 8515245
0.318362 0.143178 -0.734806 8515245
0.319116 0.143204 -0.734936 8581034
0.319855 0.143223 -0.73503399 8515245
0.32061401 0.14325 -0.735174 8515245
0.321363 0.143273 -0.73529297 8581034
0.32210299 0.14329199 -0.73539001 8646830
0.322855 0.143317 -0.735515 8646830
0.32360801 0.143341 -0.735641 8581034
0.324361 0.14336599 -0.73576701 8581034
0.325109 0.143388 -0.73588002 8646830
0.325856 0.143409 -0.73599201 8778415
0.326603 0.14343099 -0.73610198 8844204
0.327346 0.14345001 -0.736202 8844204
0.32808501 0.14346801 -0.73629397 8844204
0.32881999 0.14348499 -0.73637801 8778415
0.32954201 0.14349499 -0.736431 8844204
0.33024001 0.14349499 -0.73642898 8844204
0.33091199 0.143483 -0.73637098 8975276
0.33163199 0.143492 -0.73641801 9106354
0.33238101 0.14351401 -0.73653001 9106097
0.33316001 0.143549 -0.73670799 9105583
0.33413899 0.14366999 -0.73732799 9039537
0.33501101 0.14374401 -0.73770797 9038767
0.33577499 0.14377099 -0.73785001 9038253
0.33650899 0.143786 -0.73792499 9233843
0.33688599 0.143648 -0.73721898 9296556
0.336905 0.14335901 -0.73573202 9158042
0.336743 0.142994 -0.733859 7379834
-0.50315899 0.14950199 -0.77101201 6323296
-0.50109398 0.149105 -0.76896501 8238473
-0.499993 0.148994 -0.76839399 11004087
-0.499181 0.14896899 -0.76826602 10485190
-0.49865699 0.149031 -0.76858199 10288065
-0.49823701 0.149123 -0.769059 9894851
-0.49798101 0.14926501 -0.76978999 9960640
-0.49788699 0.14945599 -0.77077502 9830083
-0.49719599 0.149468 -0.770836 9830083
-0.49654901 0.14949299 -0.77096599 9830083
-0.49594501 0.14953201 -0.77116501 9764287
-0.49530599 0.14955901 -0.771308 9567683
-0.494665 0.14958701 -0.77144903 9567683
-0.49402201 0.14961401 -0.77158898 9698498
-0.493332 0.149626 -0.771653 9698498
-0.492672 0.149648 -0.77176601 9567683
-0.49204201 0.14967901 -0.77192599 9502401
-0.491393 0.14970399 -0.77205598 9567940
-0.49074399 0.14973 -0.77218598 9567683
-0.49009499 0.149755 -0.77231801 9632959
-0.4894 0.149767 -0.77237803 9632702
-0.488711 0.14978001 -0.77244598 9632702
-0.48802701 0.149795 -0.77252299 9698498
-0.48736799 0.149818 -0.77263999 9633215
-0.486745 0.14985099 -0.77281398 9567676
-0.48615599 0.149896 -0.77304298 9633215
-0.48551801 0.14992499 -0.77319402 9567676
-0.48491001 0.149964 -0.77339399 9435834
-0.484332 0.150012 -0.773642 9501373
-0.48324001 0.149901 -0.77306902 9501373
-0.48243099 0.149877 -0.77294701 9501373
-0.48190299 0.149941 -0.77327597 8974255
-0.48038301 0.14969601 -0.77201301 7193749
-0.47885099 0.149446 -0.770724 3705183
-0.099327996 0.147017 -0.75819898 5072725
-0.098337002 0.146612 -0.75610602 4943702
-0.097364999 0.14623 -0.75413603 5476198
-0.096173003 0.14550801 -0.75041503 7587470
-0.095739 0.14593001 -0.75259298 8908209
-0.094991997 0.14588 -0.75233102 8386479
-0.094076999 0.145568 -0.75072598 8059054
-0.093501002 0.14578 -0.75181502 7797168
-0.092885002 0.145932 -0.75260299 7666097
-0.092230998 0.146027 -0.75309002 7600815
-0.091526002 0.14604101 -0.75316399 7600815
-0.090819001 0.146053 -0.75322598 7666604
-0.090111002 0.146063 -0.753277 7601072
-0.089418001 0.146098 -0.75345701 7601329
-0.088720001 0.146125 -0.75359702 7666861
-0.088017002 0.146145 -0.753699 7601329
-0.087309003 0.146156 -0.75375402 7535789
-0.086599998 0.146167 -0.75381303 7470250
-0.085891999 0.14617901 -0.75387299 7469993
-0.085193999 0.146208 -0.75402302 7469736
-0.084491998 0.14623 -0.75413901 7469487
-0.083786003 0.146246 -0.75422198 7535019
-0.083088003 0.146276 -0.75437498 7600815
-0.082385004 0.14629801 -0.75449002 7600815
-0.081678003 0.146313 -0.75456703 7666604
-0.080973998 0.14633501 -0.75467998 7666604
-0.080271997 0.14636 -0.75480598 7666604
-0.079571001 0.146386 -0.75494498 7600815
-0.078881003 0.14643399 -0.75519198 7666604
-0.078207001 0.146514 -0.755602 7666604
-0.077549003 0.146625 -0.75617599 7863471
-0.076944999 0.14684001 -0.75728601 7863214
-0.076255001 0.14689501 -0.75756902 7862957
-0.075483002 0.14679 -0.75702399 7731372
-0.074553996 0.146376 -0.75488901 8189098
-0.073639996 0.14598399 -0.75287098 7792287
-0.072561003 0.145252 -0.749093 5678450
-0.071886003 0.14532501 -0.74946898 3830603
-0.071163997 0.145302 -0.74935102 4547918
0.31216601 0.14315499 -0.73827899 5334859
0.312491 0.142983 -0.73739398 5400909
0.31234699 0.142598 -0.73540902 4492636
0.31231001 0.14226399 -0.733684 7584908
0.312381 0.14198001 -0.73221898 8250020
0.31296599 0.14193 -0.73196298 8710828
0.31400499 0.142086 -0.732768 8645289
0.315501 0.14244799 -0.73463303 8711085
0.31614399 0.142424 -0.73451 8646060
0.31683099 0.142419 -0.73448598 8646060
0.31755999 0.142434 -0.73456198 8515245
0.31832001 0.142462 -0.73470801 8581034
0.31907499 0.142489 -0.73484302 8581034
0.31982699 0.14251301 -0.73496801 8515245
0.320586 0.14253999 -0.735111 8515245
0.32133499 0.142563 -0.73522902 8581034
0.32207301 0.142582 -0.735322 8646830
0.32282299 0.14260501 -0.73544401 8646830
0.32357201 0.142628 -0.73556 8646830
0.32431901 0.14264899 -0.735672 8646830
0.325075 0.142675 -0.73580402 8712619
0.32582399 0.14269701 -0.735919 8778415
0.32656601 0.14271601 -0.736018 8844204
0.32731101 0.142737 -0.73612398 8778415
0.32804999 0.142755 -0.73621702 8778415
0.328785 0.14277101 -0.73629802 8778415
0.329505 0.14278001 -0.73634702 8844204
0.33020201 0.14278001 -0.73634499 8844204
0.33087701 0.14277001 -0.736292 8975276
0.33157301 0.14276899 -0.736287 9040558
0.332241 0.142756 -0.73622203 9171636
0.33288199 0.142731 -0.736094 9236912
0.33410999 0.142958 -0.73726302 9170609
0.335087 0.143077 -0.737876 9038767
0.33581299 0.143088 -0.73793298 9103792
0.33652201 0.14309201 -0.73795301 9168304
0.33688 0.142947 -0.73720503 9165478
0.33688399 0.142652 -0.73568797 8896413
0.336804 0.142324 -0.73399198 7249276
-0.50252098 0.148582 -0.77003402 6389090
-0.50112599 0.148385 -0.769014 8238473
-0.49998301 0.14826301 -0.76837897 11135672
-0.49912301 0.148224 -0.76817799 10485190
-0.498546 0.148269 -0.76841003 10288065
-0.49819499 0.14838099 -0.76899397 9829055
-0.49795499 0.148527 -0.76975 9894851
-0.497825 0.148706 -0.770679 9764287
-0.49715099 0.14872301 -0.77076602 9829826
-0.496503 0.148748 -0.77089602 9764287
-0.495882 0.148781 -0.77106601 9764287
-0.49525401 0.148812 -0.77122802 9567683
-0.49461299 0.148839 -0.77136803 9567683
-0.493958 0.148863 -0.77148801 9698498
-0.493251 0.14887001 -0.77152699 9698498
-0.49259001 0.148891 -0.77163702 9567683
-0.491974 0.148927 -0.771819 9502401
-0.49134499 0.148958 -0.771981 9567683
-0.49070099 0.148984 -0.77211899 9567683
-0.490042 0.14900699 -0.77223498 9632959
-0.48934999 0.149019 -0.77229798 9698241
-0.488653 0.14903 -0.77235502 9698498
-0.48795199 0.149039 -0.77240402 9764287
-0.487304 0.149065 -0.77253801 9764544
-0.48667401 0.149097 -0.77270198 9830083
-0.486063 0.149134 -0.77289402 9764544
-0.485392 0.14915299 -0.77299303 9698748
-0.484788 0.149193 -0.77319998 9567162
-0.48425299 0.14925399 -0.773516 9567162
-0.48317701 0.149148 -0.77296901 9566906
-0.482393 0.149132 -0.77288598 9567162
-0.481897 0.149206 -0.77326697 9039794
-0.48037899 0.14896201 -0.77200502 7325078
-0.47887799 0.14872301 -0.77076697 3639389
-0.477393 0.148489 -0.76955301 5073496
-0.099312998 0.146276 -0.75808501 5006676
-0.098343 0.145904 -0.75615698 4943189
-0.097502001 0.14571799 -0.75519198 5475174
-0.095784001 0.145285 -0.752949 8973228
-0.094940998 0.145089 -0.75193202 8386479
-0.094012998 0.144758 -0.75021499 7993265
-0.093452998 0.14499301 -0.75143498 7796911
-0.092854999 0.145172 -0.752361 7666090
-0.092219003 0.145294 -0.75299197 7600815
-0.091511004 0.145303 -0.753043 7535019
-0.090805002 0.145316 -0.75310701 7535019
-0.090098999 0.145331 -0.75318301 7535276
-0.089400999 0.145357 -0.75331998 7601329
-0.088702001 0.145382 -0.75344998 7666861
-0.088001996 0.14540599 -0.75357598 7666604
-0.087295003 0.145419 -0.75364 7601329
-0.086586997 0.145429 -0.75369501 7470250
-0.085878 0.145439 -0.75374299 7404204
-0.085179999 0.145468 -0.75389701 7469736
-0.084478997 0.145493 -0.75402302 7403690
-0.083774999 0.145511 -0.75412101 7469230
-0.083080001 0.145546 -0.7543 7535019
-0.082376003 0.145567 -0.75441003 7535019
-0.081665002 0.145575 -0.75445098 7535019
-0.080959 0.14559101 -0.75453401 7600815
-0.080256 0.145614 -0.75465298 7600815
-0.079557002 0.14564399 -0.75480801 7600815
-0.078864001 0.145686 -0.75502801 7666090
-0.078194998 0.14577401 -0.755481 7797425
-0.077549003 0.145906 -0.75616699 7994286
-0.076962002 0.146155 -0.75745702 8059825
-0.076278999 0.146222 -0.75780499 7994286
-0.075501002 0.146108 -0.757213 7731372
-0.074564002 0.14568 -0.75499302 8189098
-0.073587 0.145165 -0.75232798 7989925
-0.072572999 0.144565 -0.74921602 6073720
-0.071887001 0.14461599 -0.74948001 3962446
-0.071161002 0.144585 -0.749318 4482125
0.31207901 0.142415 -0.738074 5531468
0.31252199 0.142298 -0.73746699 5531981
0.31241801 0.14193299 -0.73557502 4426585
0.31236199 0.141592 -0.73380601 7518855
0.312356 0.14127401 -0.73215997 8118948
0.31282601 0.14117301 -0.73163599 8513961
0.313961 0.141372 -0.73266602 8513961
0.31576601 0.14187001 -0.73525 8579757
0.316214 0.14175799 -0.73466998 8514731
0.3168 0.141709 -0.73441398 8514988
0.317525 0.14172199 -0.73448002 8514988
0.318277 0.141746 -0.73460901 8515245
0.31903499 0.141774 -0.73474902 8515245
0.31979799 0.141803 -0.73490202 8449449
0.320553 0.141829 -0.735035 8515245
0.3213 0.14185099 -0.73514998 8581034
0.32203999 0.14187001 -0.73524702 8581034
0.32279101 0.141893 -0.73536903 8581034
0.32353801 0.14191499 -0.73548198 8646830
0.32428101 0.14193501 -0.73558599 8646830
0.32504401 0.14196301 -0.73573297 8712619
0.32579201 0.141986 -0.73584801 8712619
0.32652801 0.142002 -0.73593301 8843947
0.32727599 0.142024 -0.736045 8843947
0.328017 0.142042 -0.73614198 8843691
0.328751 0.142058 -0.73622203 8843947
0.32947001 0.142067 -0.73626798 8843947
0.33017299 0.142069 -0.73627901 8778415
0.33085999 0.14206401 -0.73625398 8975026
0.33152401 0.14205 -0.73617899 9105840
0.33212799 0.142009 -0.73597097 9171379
0.33267099 0.14194299 -0.73562801 9236655
0.33396301 0.142196 -0.73694003 9170609
0.33502999 0.142352 -0.73774898 9038767
0.33586901 0.14241099 -0.73805499 9103792
0.336512 0.142388 -0.73793101 9234093
0.33683699 0.14222901 -0.73711097 9165742
0.33684301 0.141937 -0.73559701 8766105
0.33683699 0.141642 -0.734065 7184515
-0.50353998 0.14815199 -0.77159601 6323299
-0.501001 0.14761899 -0.76882201 8107145
-0.499874 0.14750201 -0.76821202 11004344
-0.499089 0.147485 -0.768125 10288579
-0.49864399 0.147569 -0.76856202 10091712
-0.49838099 0.147707 -0.76928103 9763780
-0.49810401 0.14784101 -0.769979 9829569
-0.49781099 0.147971 -0.77065599 9829569
-0.497141 0.14799 -0.77075201 9763780
-0.49648899 0.148013 -0.77087301 9567683
-0.49585301 0.148041 -0.77102202 9567683
-0.49519101 0.14806201 -0.77112901 9567683
-0.49452901 0.148083 -0.77123803 9567683
-0.49386901 0.148104 -0.771348 9698755
-0.493193 0.148121 -0.77143502 9698498
-0.492544 0.148146 -0.77156502 9567940
-0.491923 0.14817899 -0.77173901 9567940
-0.491292 0.14821 -0.77189797 9567940
-0.49065 0.148237 -0.772039 9567683
-0.489997 0.148261 -0.77216297 9632959
-0.489299 0.14827099 -0.77221698 9764030
-0.48860699 0.148283 -0.772282 9764030
-0.48792201 0.148298 -0.77235699 9764287
-0.487232 0.148311 -0.77242303 9764287
-0.48657399 0.148333 -0.772542 9764287
-0.48594901 0.148366 -0.77271402 9764544
-0.485349 0.148407 -0.77292502 9698748
-0.48480701 0.14846499 -0.773229 9698241
-0.48432201 0.148542 -0.77362698 9763259
-0.483105 0.14839301 -0.77285302 9697470
-0.48230499 0.14837199 -0.77274501 9500860
-0.48192 0.14848 -0.77330399 9039537
-0.480389 0.148233 -0.77202201 7325085
-0.47887701 0.147992 -0.77076697 3639395
-0.477384 0.14775699 -0.769539 5336153
-0.476266 0.147636 -0.768911 5336153
-0.099303 0.145542 -0.75800699 5071954
-0.098347001 0.145192 -0.75618201 5008211
-0.097511999 0.145017 -0.75527 5342561
-0.095784001 0.14457101 -0.752949 8971950
-0.094704002 0.144016 -0.75005502 8450990
-0.093852997 0.143802 -0.748941 8058026
-0.093448997 0.144273 -0.75139499 7796655
-0.092899002 0.144526 -0.75271398 7731372
-0.092207 0.14456099 -0.75289601 7665833
-0.091500998 0.144574 -0.75296199 7600558
-0.090795003 0.144586 -0.75302398 7535019
-0.090088002 0.14459699 -0.753084 7469487
-0.089387 0.144619 -0.75319803 7535276
-0.088685997 0.14464 -0.75330698 7666604
-0.087982997 0.14466 -0.75341302 7732400
-0.087278999 0.144677 -0.75349802 7732914
-0.086571999 0.14469001 -0.75356799 7601585
-0.085864 0.144701 -0.75362301 7535532
-0.085162997 0.144724 -0.75374401 7535532
-0.084464997 0.144752 -0.75389099 7535019
-0.083769001 0.144785 -0.75406402 7535019
-0.083066002 0.144807 -0.75417501 7469230
-0.082360998 0.144825 -0.754269 7535019
-0.081653997 0.144839 -0.75434601 7666090
-0.080940001 0.144842 -0.75436002 7731886
-0.080232002 0.14485499 -0.75442398 7731886
-0.079527996 0.144877 -0.75453901 7731886
-0.078846 0.14493699 -0.75485599 7863214
-0.078210004 0.14508601 -0.755629 7928753
-0.077619001 0.145322 -0.75685799 7994542
-0.076961003 0.14543401 -0.757442 8060082
-0.07626 0.145467 -0.75761402 7928753
-0.075517997 0.145421 -0.757375 7731372
-0.074571997 0.14498 -0.755077 8188841
-0.073606998 0.144491 -0.75252903 8055457
-0.072623 0.14395399 -0.74973398 6139513
-0.071891002 0.143914 -0.74952298 3896653
-0.071148001 0.143848 -0.749183 4350795
0.311849 0.14161099 -0.73753101 5531468
0.312442 0.141562 -0.73727798 5597517
0.312361 0.14121 -0.73544198 4491865
0.312419 0.140921 -0.73394001 7715722
0.312617 0.140697 -0.73277199 8250277
0.31317601 0.140636 -0.732454 8513704
0.31403899 0.14071199 -0.73284698 8579500
0.31520799 0.14092299 -0.73395002 8513961
0.31599599 0.140965 -0.73416501 8383660
0.31675601 0.140993 -0.73431402 8449449
0.317489 0.141009 -0.73439801 8449449
0.318241 0.14103401 -0.73452598 8515245
0.31899801 0.14105999 -0.73466402 8515245
0.31975901 0.14108901 -0.73481202 8515245
0.32050899 0.141113 -0.73493499 8449449
0.32125601 0.14113399 -0.73504901 8515245
0.32199901 0.141155 -0.73515397 8515245
0.322754 0.14117999 -0.73528498 8515245
0.32350901 0.141205 -0.73541498 8581034
0.32426301 0.14123 -0.73554498 8581034
0.325014 0.14125299 -0.73566502 8646830
0.32576001 0.14127401 -0.73577398 8712619
0.32650101 0.141293 -0.73587298 8778415
0.32723799 0.14131001 -0.73596102 8778158
0.327977 0.14132699 -0.73605198 8778158
0.32871601 0.14134499 -0.73614401 8778158
0.32943901 0.14135499 -0.73619998 8778158
0.33014899 0.14136 -0.73622602 8843691
0.33084601 0.14136 -0.73622501 8974769
0.33148399 0.141334 -0.73608899 9105583
0.332142 0.141317 -0.73600203 9105326
0.33282301 0.14131001 -0.73596299 9105070
0.33350801 0.141304 -0.73593497 9039024
0.334535 0.141444 -0.73666 8972971
0.335906 0.141727 -0.73813802 9037996
0.33642799 0.141652 -0.73774701 9103021
0.336732 0.141486 -0.73688102 9034927
0.336817 0.141229 -0.73554099 8504220
0.336734 0.140902 -0.73383999 6988418
-0.50359702 0.14743701 -0.77168399 6257510
-0.50117701 0.146942 -0.76909298 7975810
-0.49989399 0.146779 -0.76824301 10938548
-0.49901101 0.146734 -0.768004 10288579
-0.49852401 0.146805 -0.76837599 10091455
-0.49831501 0.14695799 -0.76917797 9698241
-0.49805301 0.14709599 -0.76990098 9764030
-0.497738 0.147219 -0.77054501 9698241
-0.49707299 0.147238 -0.77064502 9632445
-0.49642101 0.14726201 -0.770769 9501887
-0.495785 0.14729001 -0.77091599 9436098
-0.49511901 0.14730901 -0.77101701 9436098
-0.494459 0.14733 -0.771128 9436098
-0.49380401 0.14735299 -0.77124798 9632959
-0.49313599 0.14737201 -0.77134597 9764287
-0.49249101 0.14739799 -0.77148199 9633472
-0.49186999 0.147431 -0.77165598 9633472
-0.49123299 0.14746 -0.77180398 9633472
-0.49059099 0.147487 -0.77194601 9633472
-0.48994499 0.147513 -0.77208197 9698755
-0.48925301 0.147525 -0.77214497 9764287
-0.48856401 0.14753801 -0.772214 9830083
-0.48787901 0.147552 -0.77228898 9830083
-0.48717701 0.147562 -0.77233702 9830083
-0.48649901 0.147578 -0.77242303 9830083
-0.48584399 0.14760099 -0.77254599 9830083
-0.48527801 0.147652 -0.77281201 9829826
-0.48473299 0.147709 -0.77311099 9698241
-0.48420799 0.147773 -0.773444 9566649
-0.483082 0.147653 -0.77281499 9566649
-0.48227099 0.14762899 -0.77269101 9500860
-0.481776 0.14770199 -0.773072 9105334
-0.48027301 0.147466 -0.77183503 7391388
-0.478809 0.147241 -0.77065802 3705955
-0.47738501 0.147027 -0.76954001 5336666
-0.476237 0.146898 -0.76886499 5205080
-0.099289 0.144804 -0.75790602 5137747
-0.098353997 0.144486 -0.75624001 5139028
-0.097529002 0.144327 -0.75540799 5341792
-0.095307 0.143141 -0.74919897 8971179
-0.094567001 0.143096 -0.74896401 8581548
-0.093805999 0.14302 -0.748564 8057520
-0.093521997 0.143674 -0.75198901 7795884
-0.092918999 0.14384399 -0.752882 7796398
-0.092197001 0.143832 -0.75281602 7796655
-0.091491997 0.14384501 -0.75288397 7797168
-0.090786003 0.143858 -0.75295299 7666090
-0.09008 0.14387099 -0.75302303 7534762
-0.089373998 0.143884 -0.75308698 7535019
-0.08867 0.14390001 -0.75317299 7666604
-0.087967999 0.143921 -0.753281 7798189
-0.087265 0.143939 -0.75337601 7798446
-0.086558998 0.14395399 -0.75345498 7667374
-0.085851997 0.143966 -0.75351697 7535789
-0.085152 0.14399099 -0.753649 7535532
-0.084452003 0.144015 -0.75377601 7535276
-0.083750002 0.14403801 -0.75389701 7535019
-0.083048001 0.144061 -0.754013 7535019
-0.082345001 0.144081 -0.75411898 7535019
-0.081639998 0.144099 -0.754215 7600815
-0.080927998 0.144106 -0.75424898 7732143
-0.080219999 0.144118 -0.75431299 7732143
-0.079513997 0.144136 -0.75440699 7797939
-0.078829996 0.14419299 -0.75470603 7863471
-0.078193001 0.144338 -0.75546402 7929010
-0.077601001 0.14456999 -0.75668103 8060082
-0.076936997 0.14467099 -0.75720698 8059825
-0.076237999 0.144706 -0.75739199 7928497
-0.075503998 0.144677 -0.75723702 7731372
-0.074616998 0.14434899 -0.75552398 8123309
-0.073537998 0.14364199 -0.75182003 7924129
-0.072603002 0.143204 -0.74952799 6139770
-0.071133003 0.143108 -0.749026 4350795
0.31183499 0.14090499 -0.73749602 5597005
0.31240901 0.140848 -0.73720098 5597519
0.31226999 0.14047199 -0.735228 4490840
0.31243101 0.140231 -0.73396701 7846280
0.31269401 0.140037 -0.732952 8315559
0.31326899 0.139983 -0.73267198 8578729
0.31402299 0.14001 -0.73281097 8513704
0.31490201 0.140092 -0.73324001 8513961
0.315864 0.14021 -0.73385698 8383146
0.31671399 0.140278 -0.73421401 8448935
0.31745201 0.140296 -0.73431098 8449449
0.31821099 0.140324 -0.73445702 8383917
0.31897199 0.140352 -0.73460501 8383917
0.31973401 0.14038099 -0.73475403 8449706
0.32047901 0.140402 -0.73486602 8449449
0.321224 0.140423 -0.73497498 8515245
0.32196701 0.140443 -0.73508 8515245
0.322721 0.140468 -0.73521101 8515245
0.32347301 0.14049201 -0.73533499 8515245
0.324222 0.140514 -0.735452 8581034
0.32498199 0.140541 -0.73559201 8581034
0.32573101 0.14056399 -0.73571002 8646830
0.326471 0.140582 -0.73580402 8712619
0.327205 0.140597 -0.73588598 8712619
0.32793999 0.140613 -0.73596901 8712619
0.328675 0.14062899 -0.73605299 8712619
0.329409 0.140644 -0.73613298 8778158
0.33013299 0.140655 -0.73619097 8843691
0.330847 0.140662 -0.73622501 8974512
0.331462 0.140627 -0.73604 9039787
0.33213601 0.140617 -0.73598897 9039537
0.33287099 0.140632 -0.73606998 8973484
0.333505 0.140605 -0.735928 8907439
0.33445001 0.140709 -0.73647302 8841386
0.33570999 0.140945 -0.73770702 8906668
0.33639199 0.140938 -0.73766798 9037489
0.33674899 0.14079501 -0.73691899 9101230
0.336781 0.140516 -0.73546201 8571043
0.33674201 0.140209 -0.73385602 6989187
0.33687401 0.139975 -0.73263001 5995878
0.33717799 0.13981301 -0.73178297 5336153
-0.503479 0.14667 -0.77150202 6060388
-0.50143099 0.14628699 -0.76948297 7844225
-0.49994799 0.146066 -0.76832598 10938805
-0.49893501 0.145983 -0.76788801 10222783
-0.498391 0.146037 -0.76817101 10025659
-0.49812701 0.146173 -0.768888 9829055
-0.497879 0.14631499 -0.76963198 9829055
-0.49764699 0.146461 -0.77040201 9698241
-0.496984 0.14648101 -0.77050799 9764030
-0.496335 0.146506 -0.77063501 9567170
-0.4957 0.146534 -0.77078402 9632959
-0.49504301 0.146556 -0.77089798 9501887
-0.49439299 0.14658 -0.771025 9501887
-0.49375099 0.146606 -0.771164 9567170
-0.493081 0.146624 -0.77126098 9698748
-0.49243701 0.146651 -0.77139801 9633472
-0.49182001 0.14668401 -0.771577 9633472
-0.49116999 0.146709 -0.77170599 9699012
-0.49052599 0.146735 -0.77184302 9633472
-0.48988599 0.146763 -0.77198899 9698755
-0.48920301 0.146778 -0.77206701 9698498
-0.48851901 0.14679199 -0.77214199 9764287
-0.48783299 0.146806 -0.77221602 9830083
-0.48713601 0.146817 -0.77227098 9764544
-0.486442 0.146828 -0.77233201 9699012
-0.485751 0.146841 -0.77239799 9633472
-0.48518801 0.146892 -0.772668 9633472
-0.484613 0.14693999 -0.77292001 9567419
-0.48402601 0.146984 -0.77315301 9567162
-0.48307699 0.146919 -0.77280903 9501373
-0.48226699 0.14689501 -0.77268499 9435577
-0.48159501 0.14691401 -0.77278203 8974512
-0.48009199 0.146679 -0.77154499 7654565
-0.47871301 0.14647999 -0.77050197 3969128
-0.099278003 0.144069 -0.75781697 5268820
-0.098362997 0.143782 -0.75630802 5138774
-0.097548001 0.143638 -0.75555402 5275744
-0.095311001 0.142436 -0.74923003 8905383
-0.094599999 0.142436 -0.74923003 8581548
-0.093654998 0.14316399 -0.75305903 7795627
-0.092928 0.143143 -0.75295001 7861673
-0.092187002 0.14310201 -0.75273198 7927983
-0.091481999 0.143115 -0.752801 7928240
-0.090777002 0.14312901 -0.75287598 7797168
-0.090072997 0.14314499 -0.75295901 7666090
-0.089360997 0.143149 -0.75298101 7666090
-0.088655002 0.143162 -0.75304902 7731886
-0.087954 0.14318401 -0.75316399 7863471
-0.087251998 0.143204 -0.75326699 7798446
-0.086548001 0.14322001 -0.75335401 7732906
-0.085841 0.143234 -0.75342602 7601329
-0.085143998 0.143263 -0.75357902 7601072
-0.08444 0.143281 -0.753676 7666347
-0.083729997 0.143289 -0.75371498 7731886
-0.083030999 0.143316 -0.753856 7731886
-0.082328998 0.14333899 -0.753977 7731886
-0.081625 0.14335801 -0.75407797 7731886
-0.080918998 0.143374 -0.75416201 7797682
-0.080213003 0.14339 -0.754246 7797939
-0.079506002 0.143406 -0.75432903 7798196
-0.078817002 0.143453 -0.75458002 7863471
-0.078169003 0.14357799 -0.75523603 7863214
-0.077561997 0.14377999 -0.75629598 7928753
-0.076902002 0.143886 -0.756859 7994286
-0.076208003 0.143932 -0.75709897 7928497
-0.075482003 0.14391699 -0.75701702 7796647
-0.074708998 0.143812 -0.75646502 8123309
-0.073367998 0.142598 -0.75007999 7858597
-0.072562002 0.14241301 -0.74910599 6074747
-0.071120001 0.142371 -0.74888802 4285516
0.31193399 0.14025 -0.73773098 5597006
0.31242201 0.140155 -0.73723102 5531982
0.31219 0.13973901 -0.73504001 4227155
0.31238899 0.139516 -0.73386902 7714438
0.31249601 0.13925301 -0.73248798 8183460
0.31326601 0.13928699 -0.73266602 8578472
0.31400001 0.139304 -0.73275602 8579243
0.31476399 0.13933501 -0.732916 8579500
0.31578699 0.13947999 -0.73367798 8448421
0.31667101 0.13956299 -0.73411602 8448678
0.31741601 0.139584 -0.73422801 8384167
0.31818199 0.139615 -0.73439097 8318378
0.31894699 0.139645 -0.73454702 8318378
0.319709 0.13967399 -0.734698 8318378
0.320454 0.13969401 -0.73480803 8515245
0.321197 0.139714 -0.73491299 8581034
0.32193801 0.139733 -0.73501301 8515245
0.322689 0.13975701 -0.73513699 8515245
0.323434 0.139778 -0.73524702 8449449
0.324175 0.139796 -0.73534501 8449449
0.32494801 0.13982899 -0.73551601 8581034
0.32570201 0.139853 -0.73564398 8646830
0.326437 0.139869 -0.73572803 8712619
0.32717201 0.13988499 -0.73581302 8712619
0.327905 0.1399 -0.735892 8778158
0.32863599 0.13991401 -0.735964 8777902
0.32938099 0.139934 -0.73606998 8777902
0.330118 0.13995101 -0.736157 8777902
0.330847 0.139964 -0.73622501 8908716
0.33145201 0.139925 -0.73601902 9039787
0.332129 0.139916 -0.73597199 8973741
0.33287701 0.139937 -0.73608202 8907695
0.333646 0.13996699 -0.73624003 8841642
0.33450699 0.140035 -0.736597 8775597
0.33545801 0.14014 -0.73715299 8906668
0.33638501 0.14023501 -0.73765302 9037489
0.33681601 0.14012299 -0.737064 9166769
0.33674601 0.13980401 -0.73538601 8702364
0.336779 0.139529 -0.73393798 7054721
0.33694801 0.139311 -0.73279202 6061670
0.337255 0.13915101 -0.73194897 5401945
-0.503299 0.145887 -0.771227 6125924
-0.501445 0.14556099 -0.76950401 7843968
-0.49990201 0.14532401 -0.768255 11004087
-0.49896899 0.145265 -0.76793998 10419393
-0.498642 0.145382 -0.76855898 10222269
-0.497861 0.145367 -0.76847899 9763266
-0.49750701 0.145476 -0.76905602 9894851
-0.497576 0.14571001 -0.770293 9764030
-0.49691799 0.145731 -0.77040601 9764030
-0.49626601 0.14575399 -0.77052802 9698498
-0.495619 0.145779 -0.770657 9698498
-0.494964 0.14580099 -0.77077597 9501887
-0.49432299 0.14582799 -0.770917 9436098
-0.493696 0.145858 -0.77107799 9566913
-0.49303401 0.145879 -0.77118802 9632702
-0.49239701 0.145907 -0.77133399 9567940
-0.49178201 0.145942 -0.77151799 9633472
-0.491108 0.145959 -0.771608 9633472
-0.49044701 0.14598 -0.77171999 9633472
-0.48980001 0.146005 -0.77185398 9632959
-0.489126 0.14602201 -0.771945 9698498
-0.48845801 0.14604101 -0.77204603 9698498
-0.487795 0.146062 -0.77215499 9764287
-0.48711801 0.146079 -0.77224302 9764544
-0.48642099 0.14609 -0.7723 9633472
-0.485706 0.14609499 -0.77232701 9567676
-0.48506299 0.14612199 -0.77247 9501887
-0.48445901 0.14616001 -0.77267402 9501630
-0.48389101 0.14621 -0.77293801 9567162
-0.48306599 0.146182 -0.77279001 9501373
-0.48229599 0.146171 -0.77273101 9370045
-0.48158199 0.14617699 -0.77275997 9040565
-0.47985899 0.14587601 -0.77117002 7524257
-0.47857901 0.14570899 -0.77028698 3904615
-0.09928 0.143353 -0.75783098 5202770
-0.098369002 0.14307401 -0.756356 5138515
-0.097557001 0.14293399 -0.75561798 5144157
-0.095334001 0.14176001 -0.74940997 8773798
-0.094622999 0.14176001 -0.74940997 8515502
-0.093656003 0.142451 -0.75306499 7861166
-0.092923 0.14242101 -0.75290799 7861680
-0.09217 0.142362 -0.75259399 7993265
-0.091467001 0.142378 -0.75267798 7993779
-0.090761997 0.14239199 -0.75274998 7928240
-0.090054996 0.14240301 -0.75281101 7862957
-0.089349002 0.142416 -0.75287801 7797425
-0.088643998 0.14243101 -0.75295699 7731629
-0.087940998 0.14244799 -0.75305003 7797425
-0.087242 0.142473 -0.75318098 7732400
-0.086539999 0.14249399 -0.75329101 7667118
-0.085836001 0.142511 -0.75337899 7666861
-0.085137002 0.142536 -0.75351202 7666604
-0.084432997 0.142555 -0.753613 7666347
-0.083725996 0.14256801 -0.753681 7666347
